# .PCD v0.7 - Point Cloud Data file format
VERSION 0.7
FIELDS x y z
SIZE 4 4 4
TYPE F F F
COUNT 1 1 1
WIDTH 192
HEIGHT 1
VIEWPOINT 0 0 0 1 0 0 0
POINTS 192
DATA ascii
-0.75526088 -1.2377688 -1.5575386
9.6640186 3.4047666 23.613903
7.6032057 6.6291628 24.616364
-0.57540953 -0.8677845 -1.1375799
-0.763794 -1.255987 -1.5808038
9.4299107 3.3084681 23.074635
7.9767704 6.9390182 25.849018
-0.55954856 -0.84367001 -1.1077617
5.7664738 6.7895813 24.762264
-0.74862891 -1.2312154 -1.5457804
5.2412596 6.1457577 22.400349
8.1645784 7.0848951 26.456673
-0.58029962 -0.87388963 -1.146117
7.4368486 6.4297304 27.715149
10.297713 3.5772245 25.232834
5.5309858 6.5003386 23.743549
-0.83477086 -1.3720356 -1.7205875
6.9834881 6.0411558 25.949368
-0.55473322 -0.83291191 -1.095557
7.6647291 6.6459064 24.725529
7.4552145 4.9128847 20.853481
-0.5516997 -0.83555579 -1.0937392
5.4393454 6.3851738 23.312725
7.6254988 6.5475254 24.46656
6.936286 6.0782518 26.102848
7.658989 6.6616068 28.75732
8.765111 3.0455019 21.479698
6.9896011 8.1657419 30.220875
8.4949265 7.2882376 27.33094
5.3994055 5.422163 21.143044
9.2907295 3.2154238 22.823147
9.3074703 8.0900221 28.712894
5.2663927 5.3542089 20.807217
8.9957256 7.6786509 28.907379
6.358263 5.1921377 20.46806
6.458149 5.7435608 24.503216
9.3823347 9.7115412 33.054138
4.8130264 4.9982224 18.944534
11.50204 11.727086 47.118366
7.1416159 2.7831185 17.479256
9.0083427 7.8859625 27.807079
0.43058947 0.5607906 1.1186872
0.43519825 0.56247979 1.1184468
0.28681475 0.30049726 1.1279502
0.3710683 0.26363564 1.1455859
0.28613102 0.30081481 1.1289386
0.25501472 0.30939153 1.1243435
0.43468586 0.56166524 1.11859
0.43103454 0.5594874 1.1189978
0.29103893 0.3004874 1.1331925
0.30057719 0.29961133 1.1411813
0.37080869 0.2642166 1.1459289
0.32556748 0.18889508 1.1550827
0.3529838 0.19325659 1.1564511
0.25711989 0.30977044 1.1265235
0.24569288 0.26012 1.136277
0.43443355 0.56207359 1.1189594
0.34469992 0.2666496 1.1408409
0.28877982 0.30208427 1.1363778
0.43027979 0.56052548 1.1196743
0.35222808 0.26350835 1.1426739
0.30080667 0.29885665 1.138525
0.2905767 0.2687133 1.1308732
0.34598261 0.26834303 1.1437007
0.45616367 0.38825536 1.1306471
0.24527556 0.25847048 1.1350576
0.4343155 0.559901 1.1165524
0.30051425 0.29743034 1.1377581
0.29094747 0.19577889 1.154238
0.28853598 0.30217311 1.1334419
0.34568983 0.26660869 1.142452
0.25238284 0.32287741 1.1232069
0.29002142 0.30014762 1.1305746
0.31442383 0.17811227 1.1603566
0.29008457 0.19615978 1.1572567
0.29009086 0.26970354 1.1314358
0.45438284 0.38939607 1.1341822
0.24296772 0.25931436 1.1327937
0.29022118 0.27016723 1.1343044
0.29096791 0.19566122 1.1524211
0.32456079 0.26456439 1.1448127
0.34814474 0.2658928 1.1436589
0.37180105 0.26542675 1.1435916
0.2909908 0.29943964 1.1314583
0.25599283 0.30700976 1.1216916
0.31344214 0.17887905 1.1618288
0.42621654 0.18515745 1.1808381
0.30554572 0.31951594 1.1328052
0.34583893 0.26498803 1.1417404
0.33112484 0.2599012 1.1399997
0.24436541 0.25846261 1.1324074
0.31243205 0.1793597 1.1618448
0.30476037 0.32079917 1.1337636
0.28838238 0.29975751 1.1354574
0.42464226 0.18382923 1.1840373
0.55147445 0.65521437 2.4478145
0.87160963 1.2212316 2.3839366
0.8711344 1.2294117 2.3927948
0.4704046 0.68834126 2.4685833
0.61258149 0.43135744 2.4213965
0.86212373 1.2180451 2.3713179
0.85857165 1.2171222 2.3830552
0.47003499 0.68973106 2.4708185
0.6798147 0.33950904 2.4266968
1.1669216 1.7898029 2.3638864
0.61304373 0.431411 2.4185073
0.41076568 0.84916222 2.5898736
0.55147445 0.65521437 2.4478145
0.52343488 0.65765321 2.4327052
0.60543793 0.5913868 2.4219403
0.61222774 0.43256727 2.4278347
0.68171918 0.34219545 2.4321084
0.86255044 1.2213612 2.3806171
0.4702954 0.68975914 2.4715872
0.54886335 0.65622056 2.4491985
1.1663072 1.7882369 2.3597069
0.61838406 0.63313669 2.4329214
0.60716242 0.5836671 2.4073277
0.61874563 0.57743502 2.3951323
1.1666112 1.7907221 2.357939
0.61580646 0.58693963 2.4189384
0.52519786 0.44944468 2.4561837
0.46978909 0.69116837 2.474503
0.52290034 0.66340774 2.4470298
0.61805385 0.62969309 2.4279428
0.54813606 0.65540123 2.4530551
0.61222571 0.43199891 2.4274628
0.3518438 0.68169838 2.5435579
0.60968435 0.58230472 2.4038267
0.52542883 0.66802728 2.4632156
0.58656025 0.70677489 2.4521976
0.54539764 0.658728 2.4578519
0.57344341 0.57231164 2.4042866
0.76834357 0.40394396 2.3896391
0.61157322 0.57844353 2.3899019
0.50953227 0.58470178 2.4154348
0.4128482 0.853692 2.5935202
0.58916485 0.69926465 2.4332106
0.77634692 0.29309091 2.4133046
0.57537603 0.56593204 2.3900864
0.52815038 0.66190463 2.4456739
0.46390849 0.80288297 2.5385606
0.61210114 0.64466864 2.4565964
0.58701676 0.69927621 2.4380426
0.511585 0.59138888 2.4177225
0.6103043 0.58029032 2.4109445
0.50354475 0.86931801 2.5799134
0.39403829 0.63330954 2.4974802
0.40350243 0.85022008 2.5575452
0.42149317 0.58307707 2.4888024
0.55952793 0.70453787 2.4435375
0.53212345 0.66653705 2.4868793
0.50239319 0.87537742 2.5875432
0.76581687 0.39450166 2.4031479
0.56007922 0.6582101 2.4442956
0.57019651 0.76495755 2.4356043
0.52399385 0.59524989 2.4490867
0.6168105 0.58161128 2.427737
29.811974 38.343834 132.29063
17.042311 16.746424 79.38559
10.473421 6.6898937 38.34201
7.5243511 4.713479 23.841967
7.124074 7.6002235 28.475977
-43.300339 -58.861401 -202.84232
11.001792 12.109599 45.009815
7.335556 7.9330072 29.548811
17.355429 17.031036 81.049019
8.338809 5.2188845 26.513523
-67.877579 -91.936821 -317.08591
20.092356 25.849667 89.609329
15.970486 18.166655 63.804535
6.8951397 5.8069954 28.17211
22.464684 22.193653 105.20611
6.3248968 4.2924261 20.588358
13.389091 8.5130138 49.396748
5.020052 3.1422868 15.961244
21.132046 28.65663 92.776062
9.0273609 7.7333002 37.308235
15.194838 19.383272 65.891998
17.362904 8.7513714 55.297783
7.9288979 8.9981308 34.210434
2.2775261 0.71670353 4.6055303
7.0184679 4.6457443 22.817324
17.553959 23.711946 76.857193
27.036665 13.827078 86.848869
13.629346 15.690999 54.770535
5.8584023 4.2396326 18.575327
24.2693 12.294884 77.98082
8.3797779 4.7414017 26.569462
6.6476631 4.2962837 21.516363
52.714302 27.188957 170.78116
9.4655924 5.4089108 30.171513
